# .PCD v0.7 - Point Cloud Data file format
VERSION 0.7
FIELDS x y z normal_x normal_y normal_z flex11 flex12 flex13 flex14 flex21 flex22 flex23 flex24
SIZE 4 4 4 4 4 4 4 4 4 4 4 4 4 4
TYPE F F F F F F F F F F F F F F
COUNT 1 1 1 1 1 1 1 1 1 1 1 1 1 1
WIDTH 473
HEIGHT 1
VIEWPOINT 0 0 0 1 0 0 0
POINTS 473
DATA ascii
2.4619 21.0396 -2.9598 0 0 0 21.383635 -0.13882527 -1.4543097 0 5.9270526e+28 2.6970341e-25 0 0
1.426 12.1864 -1.8801 0 0 0 12.407426 -0.15205584 -1.4543097 0 5.9270526e+28 2.6970341e-25 0 0
1.2455 10.635 -1.784 0 0 0 10.849911 -0.16509469 -1.4542137 0 5.9284938e+28 2.6970341e-25 0 0
1.1343 9.6775999 -1.7562 0 0 0 9.8954935 -0.17832527 -1.4541179 0 5.9299351e+28 2.6970341e-25 0 0
1.0585001 9.0313997 -1.7634 0 0 0 9.2572632 -0.19155586 -1.4541179 0 5.9299351e+28 2.6970341e-25 0 0
0.92430001 7.8799 -1.6478 0 0 0 8.0979099 -0.20478643 -1.454022 0 5.9313764e+28 2.6970341e-25 0 0
0.87580001 7.46 -1.664 0 0 0 7.6880369 -0.21801703 -1.4539262 0 5.9328172e+28 2.6970341e-25 0 0
0.73030001 6.2207999 -1.4735 0 0 0 6.429143 -0.23105586 -1.4539262 0 5.9328172e+28 2.6970341e-25 0 0
0.72659999 6.1838999 -1.552 0 0 0 6.4115767 -0.24428645 -1.4538302 0 5.9342584e+28 2.6970341e-25 0 0
0.7227 6.1459999 -1.6298 0 0 0 6.394011 -0.25751701 -1.4537344 0 5.9356997e+28 2.6970341e-25 0 0
0.69300002 5.8885999 -1.6457 0 0 0 6.1480875 -0.2707476 -1.4536386 0 5.937141e+28 2.6970341e-25 0 0
0.66350001 5.6375999 -1.6567 0 0 0 5.9080195 -0.28397819 -1.4536386 0 5.937141e+28 2.6970341e-25 0 0
0.63789999 5.4154 -1.6689 0 0 0 5.697228 -0.29701704 -1.4535427 0 5.9385817e+28 2.6970341e-25 0 0
0.61089998 5.1824999 -1.673 0 0 0 5.4747257 -0.3102476 -1.4534467 0 5.940023e+28 2.6970341e-25 0 0
0.58749998 4.9836998 -1.6823 0 0 0 5.2873554 -0.32347819 -1.4534467 0 5.940023e+28 2.6970341e-25 0 0
0.56459999 4.7853999 -1.6867 0 0 0 5.0999851 -0.33670878 -1.4533509 0 5.9414643e+28 2.6970341e-25 0 0
0.54170001 4.5879998 -1.686 0 0 0 4.9126148 -0.34993938 -1.4532551 0 5.9429055e+28 2.6970341e-25 0 0
0.52039999 4.4071999 -1.6884 0 0 0 4.7428102 -0.36355343 -1.4532551 0 5.9429055e+28 2.6970341e-25 0 0
0.50059998 4.2363 -1.6945 0 0 0 4.5847168 -0.37812626 -1.4531592 0 5.9443463e+28 2.6970341e-25 0 0
0.47690001 4.0324001 -1.6865 0 0 0 4.3914909 -0.39365783 -1.4530632 0 5.9457876e+28 2.6970341e-25 0 0
0.4601 3.8868999 -1.7018 0 0 0 4.2626739 -0.41014811 -1.4529674 0 5.9472289e+28 2.6970341e-25 0 0
0.4393 3.7083001 -1.7026 0 0 0 4.0987248 -0.42778888 -1.4528716 0 5.9486701e+28 2.6970341e-25 0 0
0.4208 3.5495999 -1.7124 0 0 0 3.9581974 -0.44677189 -1.4527757 0 5.9501109e+28 2.6970341e-25 0 0
0.40110001 3.3800001 -1.7149 0 0 0 3.805959 -0.46671367 -1.4526798 0 5.9515522e+28 2.6970341e-25 0 0
0.38299999 3.2248001 -1.7237999 0 0 0 3.6712866 -0.48799765 -1.4525839 0 5.9529935e+28 2.6970341e-25 0 0
0.36469999 3.0682001 -1.7316 0 0 0 3.5366142 -0.51081562 -1.4524881 0 5.9544347e+28 2.6970341e-25 0 0
0.345 2.9007001 -1.7311 0 0 0 3.3902311 -0.53497583 -1.4523922 0 5.9558755e+28 2.6970341e-25 0 0
0.32609999 2.7372999 -1.7309 0 0 0 3.2497034 -0.56066996 -1.4522004 0 5.9587581e+28 2.6970341e-25 0 0
0.308 2.5827 -1.7343 0 0 0 3.1208863 -0.58808988 -1.4521046 0 5.9601993e+28 2.6970341e-25 0 0
0.2899 2.4274001 -1.7344 0 0 0 2.9920692 -0.61704379 -1.4519128 0 5.9630814e+28 2.6970341e-25 0 0
0.2714 2.2711 -1.7312 0 0 0 2.8632522 -0.64791512 -1.4518169 0 5.9645227e+28 2.6970341e-25 0 0
0.0131 0.1093 -0.095600002 0 0 0 0.14052771 -0.71521854 -1.4514334 0 5.9702872e+28 2.6970341e-25 0 0
0.0101 0.0845 -0.079599999 0 0 0 0.11125111 -0.75184232 -1.4512417 0 5.9731693e+28 2.6970341e-25 0 0
0.0098000001 0.0814 -0.082900003 0 0 0 0.11125111 -0.79057533 -1.4510499 0 5.9760518e+28 2.6970341e-25 0 0
0.0083999997 0.070100002 -0.077500001 0 0 0 0.099540465 -0.83141756 -1.4508582 0 5.9789344e+28 2.6970341e-25 0 0
0.0076000001 0.063000001 -0.075999998 0 0 0 0.093685143 -0.87436903 -1.4506664 0 5.9818164e+28 2.6970341e-25 0 0
0.0071999999 0.059599999 -0.0788 0 0 0 0.093685143 -0.91962147 -1.4504747 0 5.984699e+28 2.6970341e-25 0 0
0.0066999998 0.055799998 -0.081500001 0 0 0 0.093685143 -0.96717489 -1.4501871 0 5.9890223e+28 2.6970341e-25 0 0
0.0059000002 0.048599999 -0.0792 0 0 0 0.087829821 -1.0170293 -1.4499954 0 5.9919043e+28 2.6970341e-25 0 0
0.0049999999 0.041700002 -0.0766 0 0 0 0.081974499 -1.0691847 -1.4497077 0 5.9962281e+28 2.6970341e-25 0 0
0.0044999998 0.037500001 -0.078699999 0 0 0 0.081974499 -1.1234492 -1.4494201 0 6.0005515e+28 2.6970341e-25 0 0
-0.0254 -0.2027 -0.96170002 0 0 0 0.9778387 -1.361408 7.9786177 0 6.0495507e+28 2.6970341e-25 0 0
-0.0097000003 -0.077500001 -0.2265 0 0 0 0.23421286 -1.2386895 7.9791927 0 6.0581974e+28 2.6970341e-25 0 0
-0.0125 -0.099299997 -0.2432 0 0 0 0.25763413 -1.1802064 7.9795761 0 6.063962e+28 2.6970341e-25 0 0
-0.0145 -0.1153 -0.24240001 0 0 0 0.26348945 -1.1236409 7.9798641 0 6.0682858e+28 2.6970341e-25 0 0
-0.0059000002 -0.047200002 -0.086800002 0 0 0 0.093685143 -1.0693763 7.9800558 0 6.0711679e+28 2.6970341e-25 0 0
-0.0065000001 -0.051600002 -0.084200002 0 0 0 0.093685143 -1.017221 7.9803433 0 6.0754912e+28 2.6970341e-25 0 0
-0.0062000002 -0.0491 -0.071900003 0 0 0 0.081974499 -0.96736664 7.9806309 0 6.079815e+28 2.6970341e-25 0 0
-0.0074999998 -0.059500001 -0.0788 0 0 0 0.093685143 -0.91981322 7.9808226 0 6.082697e+28 2.6970341e-25 0 0
-0.0074999998 -0.059300002 -0.071500003 0 0 0 0.087829821 -0.87456077 7.9810143 0 6.0855796e+28 2.6970341e-25 0 0
-0.0088999998 -0.070100002 -0.077500001 0 0 0 0.099540465 -0.83160931 7.9813023 0 6.0899029e+28 2.6970341e-25 0 0
-0.0093 -0.073100001 -0.074500002 0 0 0 0.099540465 -0.79076707 7.9814939 0 6.092785e+28 2.6970341e-25 0 0
-0.0103 -0.080200002 -0.075599998 0 0 0 0.10539579 -0.75203407 7.9816856 0 6.0956675e+28 2.6970341e-25 0 0
-0.0112 -0.087300003 -0.076499999 0 0 0 0.11125111 -0.71541029 7.9818773 0 6.0985496e+28 2.6970341e-25 0 0
-0.25580001 -1.9898 -1.7433 0 0 0 2.6524606 -0.71541029 7.9818773 0 6.0985496e+28 2.6970341e-25 0 0
-0.27540001 -2.1387999 -1.7463 0 0 0 2.769567 -0.680704 7.982069 0 6.1014321e+28 2.6970341e-25 0 0
-0.2947 -2.2867 -1.7458 0 0 0 2.8866735 -0.64810687 7.9821649 0 6.1028733e+28 2.6970341e-25 0 0
-0.31529999 -2.4432001 -1.7484 0 0 0 3.0154905 -0.61723554 7.9823565 0 6.1057554e+28 2.6970341e-25 0 0
-0.33559999 -2.5985999 -1.7478 0 0 0 3.1443076 -0.58828163 7.9824524 0 6.1071967e+28 2.6970341e-25 0 0
-0.35679999 -2.7581999 -1.747 0 0 0 3.27898 -0.56086171 7.9826441 0 6.1100787e+28 2.6970341e-25 0 0
-0.37760001 -2.9166 -1.7436 0 0 0 3.4136524 -0.53516757 7.9827399 0 6.11152e+28 2.6970341e-25 0 0
-0.40220001 -3.1043999 -1.7551 0 0 0 3.5834568 -0.51100737 7.9828362 0 6.1129613e+28 2.6970341e-25 0 0
-0.4251 -3.2765 -1.7546 0 0 0 3.7356951 -0.4881894 7.9830279 0 6.1158438e+28 2.6970341e-25 0 0
-0.44839999 -3.4528 -1.7551 0 0 0 3.8937888 -0.46690542 7.9831238 0 6.1172846e+28 2.6970341e-25 0 0
-0.47150001 -3.6280999 -1.7536 0 0 0 4.0518823 -0.44696364 7.9832196 0 6.1187259e+28 2.6970341e-25 0 0
-0.49599999 -3.8136001 -1.7543 0 0 0 4.2216868 -0.42798063 7.9833155 0 6.1201671e+28 2.6970341e-25 0 0
-0.52170002 -4.0086999 -1.7586 0 0 0 4.4032016 -0.41033986 7.9834113 0 6.1216084e+28 2.6970341e-25 0 0
-0.5474 -4.2031002 -1.7614 0 0 0 4.5847168 -0.39384958 7.9835072 0 6.1230492e+28 2.6970341e-25 0 0
-0.57270002 -4.3969998 -1.7624 0 0 0 4.7662315 -0.37831801 7.9835072 0 6.1230492e+28 2.6970341e-25 0 0
-0.59829998 -4.5901999 -1.7622 0 0 0 4.9477468 -0.36374518 7.983603 0 6.1244905e+28 2.6970341e-25 0 0
-0.62309998 -4.7771001 -1.7592 0 0 0 5.1234064 -0.35013112 7.9836988 0 6.1259317e+28 2.6970341e-25 0 0
-0.648 -4.9640999 -1.7534 0 0 0 5.2990661 -0.33690053 7.9837947 0 6.127373e+28 2.6970341e-25 0 0
-0.67470002 -5.1683002 -1.7485 0 0 0 5.4922915 -0.32366994 7.9837947 0 6.127373e+28 2.6970341e-25 0 0
-0.70410001 -5.3898001 -1.7438 0 0 0 5.703083 -0.31043935 7.9838905 0 6.1288138e+28 2.6970341e-25 0 0
-0.73799998 -5.6451998 -1.7437 0 0 0 5.9490066 -0.29720879 7.9839864 0 6.130255e+28 2.6970341e-25 0 0
-0.7744 -5.9236999 -1.7448 0 0 0 6.2183514 -0.28416994 7.9839864 0 6.130255e+28 2.6970341e-25 0 0
-0.81309998 -6.2145 -1.7409 0 0 0 6.4994068 -0.27093935 7.9840822 0 6.1316963e+28 2.6970341e-25 0 0
-0.8563 -6.5398998 -1.7384 0 0 0 6.8155942 -0.25770876 7.9841781 0 6.1331376e+28 2.6970341e-25 0 0
-0.9034 -6.8944001 -1.7345999 0 0 0 7.1610579 -0.24447818 7.9842739 0 6.1345784e+28 2.6970341e-25 0 0
-0.95660001 -7.3007998 -1.7337 0 0 0 7.5592198 -0.2312476 7.9842739 0 6.1345784e+28 2.6970341e-25 0 0
-1.0144 -7.7361999 -1.7301 0 0 0 7.9866586 -0.21820876 7.9843702 0 6.1360196e+28 2.6970341e-25 0 0
-1.0777 -8.2129002 -1.722 0 0 0 8.4550838 -0.20497818 7.9844661 0 6.1374609e+28 2.6970341e-25 0 0
-1.1479 -8.7476997 -1.7127 0 0 0 8.9820633 -0.19174761 7.9844661 0 6.1374609e+28 2.6970341e-25 0 0
-1.2319 -9.3806 -1.7071 0 0 0 9.6085825 -0.17851701 7.9845619 0 6.1389022e+28 2.6970341e-25 0 0
-1.3207 -10.0491 -1.6906 0 0 0 10.270234 -0.16528644 7.9846578 0 6.140343e+28 2.6970341e-25 0 0
-1.4342999 -10.9136 -1.6889 0 0 0 11.130966 -0.15224759 7.9846578 0 6.140343e+28 2.6970341e-25 0 0
-1.5795 -12.0098 -1.6948 0 0 0 12.225911 -0.13901702 7.9847536 0 6.1417842e+28 2.6970341e-25 0 0
-1.7388999 -13.2115 -1.6849999 0 0 0 13.426252 -0.12578642 7.9848495 0 6.1432255e+28 2.6970341e-25 0 0
-1.9214 -14.5879 -1.6631 0 0 0 14.802253 -0.11255584 7.9849453 0 6.1446668e+28 2.6970341e-25 0 0
-2.1722 -16.4916 -1.6576 0 0 0 16.711088 -0.099325255 7.9849453 0 6.1446668e+28 2.6970341e-25 0 0
-2.5088 -19.0333 -1.6569 0 0 0 19.264008 -0.08609467 7.9850411 0 6.1461076e+28 2.6970341e-25 0 0
-2.9082999 -22.0637 -1.6287 0 0 0 22.308775 -0.073055834 7.9850411 0 6.1461076e+28 2.6970341e-25 0 0
-3.3540001 -25.426399 -1.5361 0 0 0 25.687296 -0.059825249 7.985137 0 6.1475488e+28 2.6970341e-25 0 0
-5.5921998 -42.268799 0.26159999 0 0 0 42.632595 0.0061359233 7.9855204 0 6.1533134e+28 2.6970341e-25 0 0
2.0181999 14.7962 3.3002 0 0 0 15.288244 0.21750569 -1.4352307 0 6.2138419e+28 2.6970341e-25 0 0
2.0191 14.7926 3.0929 0 0 0 15.241402 0.2042751 -1.4351349 0 6.2152831e+28 2.6970341e-25 0 0
2.0602 15.0822 2.944 0 0 0 15.499036 0.19104452 -1.435039 0 6.2167244e+28 2.6970341e-25 0 0
2.0035 14.6568 2.6585 0 0 0 15.024755 0.17781393 -1.4349432 0 6.2181652e+28 2.6970341e-25 0 0
2.0776 15.1992 2.7567999 0 0 0 15.581011 0.17781393 -1.4349432 0 6.2181652e+28 2.6970341e-25 0 0
2.0423999 14.9417 2.5076001 0 0 0 15.282389 0.1647751 -1.4349432 0 6.2181652e+28 2.6970341e-25 0 0
2.0355999 14.8813 2.2937 0 0 0 15.188704 0.15154451 -1.4348472 0 6.2196065e+28 2.6970341e-25 0 0
2.0441 14.9329 2.098 0 0 0 15.212125 0.13831393 -1.4347514 0 6.2210477e+28 2.6970341e-25 0 0
2.1652999 15.8177 2.2224 0 0 0 16.113844 0.13831393 -1.4347514 0 6.2210477e+28 2.6970341e-25 0 0
2.0674 15.103 1.9167 0 0 0 15.358508 0.12508336 -1.4347514 0 6.2210477e+28 2.6970341e-25 0 0
2.0729001 15.1323 1.7155 0 0 0 15.364364 0.11185277 -1.4346555 0 6.222489e+28 2.6970341e-25 0 0
1.9919 14.5413 1.455 0 0 0 14.743699 0.098813929 -1.4346555 0 6.222489e+28 2.6970341e-25 0 0
2.1066 15.3783 1.5388 0 0 0 15.592721 0.098813929 -1.4346555 0 6.222489e+28 2.6970341e-25 0 0
2.2434001 16.377001 1.6387 0 0 0 16.605692 0.098813929 -1.4346555 0 6.222489e+28 2.6970341e-25 0 0
2.0069001 14.6398 1.2677 0 0 0 14.825674 0.085583344 -1.4345597 0 6.2239298e+28 2.6970341e-25 0 0
1.4103 10.2809 0.75209999 0 0 0 10.399051 0.07235276 -1.4344637 0 6.2253711e+28 2.6970341e-25 0 0
1.9318 14.0822 1.0302 0 0 0 14.245997 0.07235276 -1.4344637 0 6.2253711e+28 2.6970341e-25 0 0
1.4022 10.2144 0.61019999 0 0 0 10.322931 0.059122175 -1.4343679 0 6.2268123e+28 2.6970341e-25 0 0
1.9603 14.2795 0.8531 0 0 0 14.433368 0.059122175 -1.4343679 0 6.2268123e+28 2.6970341e-25 0 0
1.4024 10.2157 0.47350001 0 0 0 10.317077 0.04589159 -1.4343679 0 6.2268123e+28 2.6970341e-25 0 0
1.9871 14.4749 0.67089999 0 0 0 14.620738 0.04589159 -1.4343679 0 6.2268123e+28 2.6970341e-25 0 0
1.4081 10.2498 0.34 0 0 0 10.346353 0.032852754 -1.4342721 0 6.2282536e+28 2.6970341e-25 0 0
1.9776 14.3952 0.47749999 0 0 0 14.532907 0.032852754 -1.4342721 0 6.2282536e+28 2.6970341e-25 0 0
1.4095 10.2533 0.2031 0 0 0 10.346353 0.019622171 -1.4341762 0 6.2296944e+28 2.6970341e-25 0 0
1.9453 14.1506 0.28029999 0 0 0 14.281129 0.019622171 -1.4341762 0 6.2296944e+28 2.6970341e-25 0 0
2.0817001 15.1424 0.2999 0 0 0 15.282389 0.019622171 -1.4341762 0 6.2296944e+28 2.6970341e-25 0 0
1.9632 14.2807 0.092100002 0 0 0 14.409946 0.0063915867 -1.4341762 0 6.2296944e+28 2.6970341e-25 0 0
2.1993001 15.9977 0.1032 0 0 0 16.143122 0.0063915867 -1.4341762 0 6.2296944e+28 2.6970341e-25 0 0
1.9398 14.1006 -0.0973 0 0 0 14.228431 -0.0068389978 -1.4340802 0 6.2311357e+28 2.6970341e-25 0 0
2.1098001 15.3361 -0.1058 0 0 0 15.475615 -0.0068389978 -1.4340802 0 6.2311357e+28 2.6970341e-25 0 0
1.9456 14.1327 -0.2863 0 0 0 14.263563 -0.020069582 -1.4339844 0 6.2325769e+28 2.6970341e-25 0 0
2.0192001 14.6669 -0.4932 0 0 0 14.808108 -0.033300165 -1.4339844 0 6.2325769e+28 2.6970341e-25 0 0
1.4119999 10.2496 -0.4797 0 0 0 10.352208 -0.046339002 -1.4338886 0 6.2340182e+28 2.6970341e-25 0 0
1.8918 13.732 -0.64270002 0 0 0 13.871257 -0.046339002 -1.4338886 0 6.2340182e+28 2.6970341e-25 0 0
2.2295001 16.183001 -0.75749999 0 0 0 16.348057 -0.046339002 -1.4338886 0 6.2340182e+28 2.6970341e-25 0 0
1.9094 13.8496 -0.83380002 0 0 0 14.000073 -0.059569586 -1.4337927 0 6.235459e+28 2.6970341e-25 0 0
1.415 10.2563 -0.755 0 0 0 10.375629 -0.072800174 -1.4336967 0 6.2369002e+28 2.6970341e-25 0 0
2.1308999 15.4455 -1.137 0 0 0 15.627853 -0.072800174 -1.4336967 0 6.2369002e+28 2.6970341e-25 0 0
2.1087 15.2848 -1.3307 0 0 0 15.48147 -0.086030759 -1.4336967 0 6.2369002e+28 2.6970341e-25 0 0
1.4143 10.2443 -1.0299 0 0 0 10.387341 -0.099261343 -1.4336009 0 6.2383415e+28 2.6970341e-25 0 0
3.1809001 23.0236 -2.9330001 0 0 0 23.421286 -0.12553076 -1.4335051 0 6.2397828e+28 2.6970341e-25 0 0
1.4191 10.2647 -1.4471999 0 0 0 10.457604 -0.13876134 -1.4334092 0 6.2412236e+28 2.6970341e-25 0 0
2.8964 20.949301 -2.9535 0 0 0 21.348501 -0.13876134 -1.4334092 0 6.2412236e+28 2.6970341e-25 0 0
1.6791 12.1367 -1.8767 0 0 0 12.38986 -0.15199193 -1.4333133 0 6.2426648e+28 2.6970341e-25 0 0
1.4714 10.635 -1.7902 0 0 0 10.879188 -0.16522251 -1.4333133 0 6.2426648e+28 2.6970341e-25 0 0
1.3426 9.6975002 -1.7639 0 0 0 9.9423361 -0.17826135 -1.4332174 0 6.2441061e+28 2.6970341e-25 0 0
1.2408 8.9560003 -1.7528 0 0 0 9.204565 -0.19149193 -1.4331216 0 6.2455474e+28 2.6970341e-25 0 0
1.0896 7.8589001 -1.6473 0 0 0 8.0979099 -0.20472252 -1.4330257 0 6.2469882e+28 2.6970341e-25 0 0
1.0283999 7.4175 -1.6584001 0 0 0 7.6646156 -0.2179531 -1.4330257 0 6.2469882e+28 2.6970341e-25 0 0
0.8592 6.1925998 -1.4716001 0 0 0 6.4174323 -0.23118369 -1.4329298 0 6.2484294e+28 2.6970341e-25 0 0
0.85329998 6.1501999 -1.5484999 0 0 0 6.394011 -0.24441427 -1.4329298 0 6.2484294e+28 2.6970341e-25 0 0
0.8502 6.1240001 -1.6279 0 0 0 6.3881555 -0.25745311 -1.4328339 0 6.2498707e+28 2.6970341e-25 0 0
0.81910002 5.8952999 -1.6516 0 0 0 6.1715088 -0.27068371 -1.4327381 0 6.251312e+28 2.6970341e-25 0 0
0.77960002 5.6114998 -1.6531 0 0 0 5.8963089 -0.28391427 -1.4327381 0 6.251312e+28 2.6970341e-25 0 0
0.7493 5.3895998 -1.6662 0 0 0 5.6855173 -0.29714486 -1.4326422 0 6.2527532e+28 2.6970341e-25 0 0
0.71749997 5.1574001 -1.6701 0 0 0 5.4630151 -0.31037545 -1.4325463 0 6.254194e+28 2.6970341e-25 0 0
0.69050002 4.9594002 -1.6783 0 0 0 5.2756448 -0.3234143 -1.4324504 0 6.2556353e+28 2.6970341e-25 0 0
0.66369998 4.7672 -1.6844 0 0 0 5.0941296 -0.33664486 -1.4324504 0 6.2556353e+28 2.6970341e-25 0 0
0.6383 4.5812001 -1.6878 0 0 0 4.9184699 -0.34987545 -1.4323546 0 6.2570766e+28 2.6970341e-25 0 0
0.61360002 4.4008002 -1.6902 0 0 0 4.7486658 -0.36348954 -1.4322587 0 6.2585178e+28 2.6970341e-25 0 0
0.58759999 4.2143002 -1.6899 0 0 0 4.5730062 -0.37806234 -1.4322587 0 6.2585178e+28 2.6970341e-25 0 0
0.56330001 4.0377002 -1.6928999 0 0 0 4.4090571 -0.39359391 -1.4321628 0 6.2599586e+28 2.6970341e-25 0 0
0.54040003 3.8708999 -1.7 0 0 0 4.2568188 -0.41027594 -1.4320669 0 6.2613999e+28 2.6970341e-25 0 0
0.51740003 3.7033999 -1.7055 0 0 0 4.1045804 -0.42791674 -1.4319711 0 6.2628412e+28 2.6970341e-25 0 0
0.4957 3.5453999 -1.7147 0 0 0 3.9640527 -0.44670799 -1.4318752 0 6.2642824e+28 2.6970341e-25 0 0
0.47310001 3.3813 -1.7199 0 0 0 3.8176696 -0.46664974 -1.4317793 0 6.2657232e+28 2.6970341e-25 0 0
0.45100001 3.221 -1.727 0 0 0 3.6771419 -0.48812547 -1.4316834 0 6.2671645e+28 2.6970341e-25 0 0
0.4294 3.0651 -1.7343 0 0 0 3.5424695 -0.51075166 -1.4315876 0 6.2686057e+28 2.6970341e-25 0 0
0.4059 2.8929 -1.7309 0 0 0 3.3902311 -0.53491187 -1.4313958 0 6.2714878e+28 2.6970341e-25 0 0
0.38319999 2.7297001 -1.7312 0 0 0 3.2497034 -0.56079781 -1.4312999 0 6.2729291e+28 2.6970341e-25 0 0
0.36050001 2.5662 -1.7277 0 0 0 3.1091757 -0.58802599 -1.4312041 0 6.2743703e+28 2.6970341e-25 0 0
0.33860001 2.4066999 -1.724 0 0 0 2.9745033 -0.61697984 -1.4310123 0 6.2772524e+28 2.6970341e-25 0 0
0.31690001 2.2511001 -1.7205 0 0 0 2.8456862 -0.64785123 -1.4309164 0 6.2786937e+28 2.6970341e-25 0 0
0.0116 0.082800001 -0.0726 0 0 0 0.10539579 -0.71515465 -1.4305329 0 6.2844583e+28 2.6970341e-25 0 0
0.0119 0.084299996 -0.079599999 0 0 0 0.11125111 -0.75177842 -1.4303412 0 6.2873408e+28 2.6970341e-25 0 0
0.0115 0.081200004 -0.082800001 0 0 0 0.11125111 -0.79051143 -1.4301494 0 6.2902229e+28 2.6970341e-25 0 0
0.0093 0.066100001 -0.073200002 0 0 0 0.093685143 -0.83135366 -1.4299577 0 6.2931054e+28 2.6970341e-25 0 0
0.0088999998 0.062899999 -0.075900003 0 0 0 0.093685143 -0.87430513 -1.4297659 0 6.2959874e+28 2.6970341e-25 0 0
0.0078999996 0.0559 -0.074100003 0 0 0 0.087829821 -0.91974932 -1.4294783 0 6.3003112e+28 2.6970341e-25 0 0
0.0068999999 0.048999999 -0.071900003 0 0 0 0.081974499 -0.96730274 -1.4292866 0 6.3031933e+28 2.6970341e-25 0 0
0.0063999998 0.045400001 -0.074299999 0 0 0 0.081974499 -1.0171571 -1.4289989 0 6.3075166e+28 2.6970341e-25 0 0
0.0059000002 0.041499998 -0.076499999 0 0 0 0.081974499 -1.0691206 -1.4288073 0 6.3103992e+28 2.6970341e-25 0 0
0.0057000001 0.039900001 -0.083999999 0 0 0 0.087829821 -1.1233853 -1.4285196 0 6.3147225e+28 2.6970341e-25 0 0
0.00019999999 0.0014 -0.0051000002 0 0 0 0 -1.299026 -1.4275609 0 6.3291342e+28 2.6970341e-25 0 0
-0.02 -0.1366 -0.49590001 0 0 0 0.50941294 -1.2991539 7.9999018 0 6.3694864e+28 2.6970341e-25 0 0
-0.0102 -0.069700003 -0.2043 0 0 0 0.21079157 -1.2387534 8.0001888 0 6.3738097e+28 2.6970341e-25 0 0
-0.0142 -0.096799999 -0.2377 0 0 0 0.25177881 -1.1800786 8.0004768 0 6.378133e+28 2.6970341e-25 0 0
-0.017000001 -0.1149 -0.24240001 0 0 0 0.26348945 -1.1237048 8.0007648 0 6.3824568e+28 2.6970341e-25 0 0
-0.0060999999 -0.041499998 -0.0766 0 0 0 0.081974499 -1.0692486 8.0010519 0 6.3867801e+28 2.6970341e-25 0 0
-0.0071 -0.0484 -0.0792 0 0 0 0.087829821 -1.0172849 8.0013399 0 6.3911035e+28 2.6970341e-25 0 0
-0.0087000001 -0.058800001 -0.086400002 0 0 0 0.099540465 -0.96743053 8.0015316 0 6.393986e+28 2.6970341e-25 0 0
-0.0082999999 -0.055799998 -0.074100003 0 0 0 0.087829821 -0.91987717 8.0018187 0 6.3983093e+28 2.6970341e-25 0 0
-0.0104 -0.070200004 -0.085000001 0 0 0 0.10539579 -0.87462473 8.0020103 0 6.4011919e+28 2.6970341e-25 0 0
-0.0116 -0.077699997 -0.086099997 0 0 0 0.11125111 -0.83148152 8.002203 0 6.4040739e+28 2.6970341e-25 0 0
-0.0115 -0.077 -0.078699999 0 0 0 0.10539579 -0.79063928 8.0023947 0 6.4069564e+28 2.6970341e-25 0 0
-0.0119 -0.079999998 -0.075599998 0 0 0 0.10539579 -0.75190628 8.0025864 0 6.4098385e+28 2.6970341e-25 0 0
-0.0123 -0.082699999 -0.0726 0 0 0 0.10539579 -0.71528244 8.0027781 0 6.412721e+28 2.6970341e-25 0 0
-0.31940001 -2.128 -1.7428 0 0 0 2.7637117 -0.68076789 8.0029697 0 6.4156031e+28 2.6970341e-25 0 0
-0.34330001 -2.2844999 -1.7495 0 0 0 2.8925288 -0.64817077 8.0031614 0 6.4184856e+28 2.6970341e-25 0 0
-0.36649999 -2.4359 -1.7485 0 0 0 3.0154905 -0.61729944 8.0033531 0 6.4213677e+28 2.6970341e-25 0 0
-0.39160001 -2.6008 -1.7539999 0 0 0 3.1560183 -0.58815378 8.0034485 0 6.422809e+28 2.6970341e-25 0 0
-0.41510001 -2.7549 -1.7503 0 0 0 3.2848353 -0.56092566 8.0035448 0 6.4242502e+28 2.6970341e-25 0 0
-0.4402 -2.9179001 -1.7498 0 0 0 3.4253631 -0.53523147 8.0037365 0 6.4271323e+28 2.6970341e-25 0 0
-0.465 -3.0799999 -1.7467 0 0 0 3.5658908 -0.51107126 8.0038328 0 6.4285735e+28 2.6970341e-25 0 0
-0.49200001 -3.2565999 -1.7493 0 0 0 3.7239845 -0.4882533 8.0039282 0 6.4300148e+28 2.6970341e-25 0 0
-0.51810002 -3.427 -1.7474 0 0 0 3.8762228 -0.46696931 8.0040245 0 6.4314556e+28 2.6970341e-25 0 0
-0.54720002 -3.6177001 -1.7532001 0 0 0 4.0518823 -0.44683582 8.0041199 0 6.4328969e+28 2.6970341e-25 0 0
-0.57389998 -3.7918 -1.7497 0 0 0 4.2099762 -0.42804456 8.0042162 0 6.4343381e+28 2.6970341e-25 0 0
-0.60460001 -3.9914999 -1.7566 0 0 0 4.3973465 -0.41040379 8.0043116 0 6.4357794e+28 2.6970341e-25 0 0
-0.63590002 -4.1960001 -1.7639 0 0 0 4.5905719 -0.39391348 8.0044079 0 6.4372207e+28 2.6970341e-25 0 0
-0.66399997 -4.3785 -1.7605 0 0 0 4.7603765 -0.37838194 8.0045033 0 6.4386615e+28 2.6970341e-25 0 0
-0.6929 -4.5657001 -1.7582999 0 0 0 4.9360361 -0.36380911 8.0045996 0 6.4401027e+28 2.6970341e-25 0 0
-0.72289997 -4.7631998 -1.7586 0 0 0 5.1234064 -0.35000327 8.0045996 0 6.4401027e+28 2.6970341e-25 0 0
-0.75080001 -4.9439001 -1.7517999 0 0 0 5.2932105 -0.33696446 8.0046949 0 6.441544e+28 2.6970341e-25 0 0
-0.78299999 -5.1529002 -1.7488 0 0 0 5.4922915 -0.32373387 8.0047913 0 6.4429853e+28 2.6970341e-25 0 0
-0.81959999 -5.3902001 -1.7495 0 0 0 5.7206492 -0.31050327 8.0048866 0 6.4444261e+28 2.6970341e-25 0 0
-0.85409999 -5.6174002 -1.7406 0 0 0 5.9372959 -0.29727268 8.0048866 0 6.4444261e+28 2.6970341e-25 0 0
-0.89700001 -5.8951998 -1.7408 0 0 0 6.2066407 -0.28404212 8.0049829 0 6.4458673e+28 2.6970341e-25 0 0
-0.94330001 -6.1959 -1.7413 0 0 0 6.4994068 -0.27100328 8.0050783 0 6.4473086e+28 2.6970341e-25 0 0
-0.991 -6.5092001 -1.7358 0 0 0 6.8038836 -0.25777268 8.0050783 0 6.4473086e+28 2.6970341e-25 0 0
-1.0455 -6.8625998 -1.7322 0 0 0 7.1493473 -0.24454211 8.0051746 0 6.4487499e+28 2.6970341e-25 0 0
-1.1019 -7.2283001 -1.7221 0 0 0 7.5065222 -0.23131151 8.005271 0 6.4501907e+28 2.6970341e-25 0 0
-1.1742001 -7.7023001 -1.7265 0 0 0 7.9749479 -0.21808094 8.005271 0 6.4501907e+28 2.6970341e-25 0 0
-1.2492 -8.1887999 -1.721 0 0 0 8.4550838 -0.20485035 8.0053663 0 6.4516319e+28 2.6970341e-25 0 0
-1.3339 -8.7385998 -1.7165999 0 0 0 8.999629 -0.19181152 8.0054626 0 6.4530732e+28 2.6970341e-25 0 0
-1.4189 -9.2957001 -1.6973 0 0 0 9.5500288 -0.17858092 8.0054626 0 6.4530732e+28 2.6970341e-25 0 0
-1.5278 -10.0021 -1.6884 0 0 0 10.252667 -0.16535035 8.005558 0 6.4545145e+28 2.6970341e-25 0 0
-1.6526 -10.8127 -1.6768 0 0 0 11.060702 -0.15211976 8.0056543 0 6.4559552e+28 2.6970341e-25 0 0
-1.8311 -11.9801 -1.6941 0 0 0 12.231767 -0.13888918 8.0056543 0 6.4559552e+28 2.6970341e-25 0 0
-2.0049 -13.109 -1.6778001 0 0 0 13.361843 -0.12585033 8.0057497 0 6.4573965e+28 2.6970341e-25 0 0
-2.2056 -14.4122 -1.6489 0 0 0 14.667581 -0.11261976 8.005846 0 6.4588378e+28 2.6970341e-25 0 0
-2.5164001 -16.442499 -1.6587 0 0 0 16.711088 -0.099389173 8.005846 0 6.4588378e+28 2.6970341e-25 0 0
-3.3169 -21.645901 -1.5998 0 0 0 21.951601 -0.072928004 8.0060377 0 6.4617198e+28 2.6970341e-25 0 0
-3.9298 -25.6453 -1.5556 0 0 0 25.985916 -0.059889168 8.0060377 0 6.4617198e+28 2.6970341e-25 0 0
2.3991001 15.208 3.6147001 0 0 0 15.809368 0.23060845 -1.4143302 0 6.5280129e+28 2.6970341e-25 0 0
2.405 15.2361 3.4099 0 0 0 15.791802 0.2175696 -1.4142344 0 6.5294542e+28 2.6970341e-25 0 0
2.3448 14.8545 3.1164 0 0 0 15.352653 0.20433903 -1.4142344 0 6.5294542e+28 2.6970341e-25 0 0
2.3273001 14.7254 2.6801 0 0 0 15.141861 0.17787786 -1.4140427 0 6.5323367e+28 2.6970341e-25 0 0
2.2908001 14.4851 2.4366 0 0 0 14.860806 0.16464727 -1.4139467 0 6.5337775e+28 2.6970341e-25 0 0
2.2964001 14.5209 2.2460999 0 0 0 14.866661 0.15160844 -1.4139467 0 6.5337775e+28 2.6970341e-25 0 0
2.2578001 14.2681 2.0118001 0 0 0 14.57975 0.13837785 -1.4138509 0 6.5352188e+28 2.6970341e-25 0 0
2.2750001 14.3675 1.83 0 0 0 14.655869 0.12514727 -1.4137551 0 6.53666e+28 2.6970341e-25 0 0
2.2849 14.4304 1.6418999 0 0 0 14.696856 0.11191668 -1.4137551 0 6.53666e+28 2.6970341e-25 0 0
2.3714001 14.9764 1.7041 0 0 0 15.253113 0.11191668 -1.4137551 0 6.53666e+28 2.6970341e-25 0 0
2.2639999 14.2893 1.4324 0 0 0 14.532907 0.098686099 -1.4136592 0 6.5381013e+28 2.6970341e-25 0 0
2.2516999 14.2028 1.2318 0 0 0 14.427512 0.085455514 -1.4135633 0 6.5395421e+28 2.6970341e-25 0 0
2.2632 14.2751 1.0484999 0 0 0 14.486065 0.072416678 -1.4135633 0 6.5395421e+28 2.6970341e-25 0 0
2.1768 13.7216 0.82319999 0 0 0 13.912244 0.059186094 -1.4134674 0 6.5409833e+28 2.6970341e-25 0 0
2.4368 15.3611 0.92159998 0 0 0 15.575155 0.059186094 -1.4134674 0 6.5409833e+28 2.6970341e-25 0 0
1.633 10.2939 0.47929999 0 0 0 10.428328 0.045955509 -1.4134674 0 6.5409833e+28 2.6970341e-25 0 0
2.2351 14.0893 0.65600002 0 0 0 14.275273 0.045955509 -1.4134674 0 6.5409833e+28 2.6970341e-25 0 0
2.2945001 14.4548 0.47909999 0 0 0 14.638304 0.032724924 -1.4133716 0 6.5424246e+28 2.6970341e-25 0 0
1.6336 10.2852 0.20299999 0 0 0 10.410762 0.01949434 -1.4132757 0 6.5438659e+28 2.6970341e-25 0 0
2.2076001 13.8988 0.27430001 0 0 0 14.070337 0.01949434 -1.4132757 0 6.5438659e+28 2.6970341e-25 0 0
2.3518 14.8065 0.2922 0 0 0 14.989623 0.01949434 -1.4132757 0 6.5438659e+28 2.6970341e-25 0 0
2.5365 15.9595 0.1043 0 0 0 16.154831 0.0064555025 -1.4131798 0 6.5453067e+28 2.6970341e-25 0 0
1.6386 10.3099 -0.070699997 0 0 0 10.434183 -0.0067750816 -1.4131798 0 6.5453067e+28 2.6970341e-25 0 0
2.1164999 13.3168 -0.091300003 0 0 0 13.47895 -0.0067750816 -1.4131798 0 6.5453067e+28 2.6970341e-25 0 0
2.2451 14.1264 -0.096900001 0 0 0 14.298695 -0.0067750816 -1.4131798 0 6.5453067e+28 2.6970341e-25 0 0
2.1210001 13.3374 -0.27020001 0 0 0 13.502371 -0.020005666 -1.4130839 0 6.5467479e+28 2.6970341e-25 0 0
2.1317 13.3961 -0.45100001 0 0 0 13.56678 -0.03323625 -1.4129881 0 6.5481892e+28 2.6970341e-25 0 0
2.2151 13.9204 -0.65539998 0 0 0 14.10547 -0.046466835 -1.4129881 0 6.5481892e+28 2.6970341e-25 0 0
1.6465 10.3341 -0.76239997 0 0 0 10.48688 -0.072736256 -1.4127963 0 6.5510713e+28 2.6970341e-25 0 0
2.4459 15.3515 -1.1325999 0 0 0 15.581011 -0.072736256 -1.4127963 0 6.5510713e+28 2.6970341e-25 0 0
2.3993001 15.0588 -1.3141 0 0 0 15.299955 -0.08596684 -1.4127963 0 6.5510713e+28 2.6970341e-25 0 0
1.6506 10.3475 -1.183 0 0 0 10.539578 -0.11242801 -1.4126046 0 6.5539538e+28 2.6970341e-25 0 0
4.0465999 25.3668 -2.9001999 0 0 0 25.845388 -0.11242801 -1.4126046 0 6.5539538e+28 2.6970341e-25 0 0
1.6417 10.2851 -1.3157001 0 0 0 10.492736 -0.12565859 -1.4125087 0 6.5553951e+28 2.6970341e-25 0 0
3.6626 22.945601 -2.9352 0 0 0 23.41543 -0.12565859 -1.4125087 0 6.5553951e+28 2.6970341e-25 0 0
1.6461999 10.3131 -1.4578 0 0 0 10.539578 -0.13869743 -1.4125087 0 6.5553951e+28 2.6970341e-25 0 0
3.2632 20.443399 -2.8899 0 0 0 20.897642 -0.13869743 -1.4125087 0 6.5553951e+28 2.6970341e-25 0 0
1.6513 10.3387 -1.603 0 0 0 10.586421 -0.15192801 -1.4124128 0 6.5568359e+28 2.6970341e-25 0 0
1.9333 12.1048 -1.8767999 0 0 0 12.395716 -0.15192801 -1.4124128 0 6.5568359e+28 2.6970341e-25 0 0
1.688 10.5619 -1.7826999 0 0 0 10.8382 -0.1651586 -1.4123169 0 6.5582771e+28 2.6970341e-25 0 0
1.5568 9.7411003 -1.7786 0 0 0 10.018455 -0.17838918 -1.4123169 0 6.5582771e+28 2.6970341e-25 0 0
1.4468 9.0471001 -1.7774 0 0 0 9.327527 -0.19161977 -1.4122211 0 6.5597184e+28 2.6970341e-25 0 0
1.2645 7.9024 -1.6611 0 0 0 8.1681738 -0.2046586 -1.4121252 0 6.5611597e+28 2.6970341e-25 0 0
1.1913 7.4453001 -1.6694 0 0 0 7.7173138 -0.21788919 -1.4121252 0 6.5611597e+28 2.6970341e-25 0 0
0.98570001 6.1564999 -1.4672 0 0 0 6.3998661 -0.23111977 -1.4120293 0 6.5626004e+28 2.6970341e-25 0 0
0.9777 6.1030002 -1.541 0 0 0 6.3647342 -0.24435036 -1.4119334 0 6.5640417e+28 2.6970341e-25 0 0
0.97589999 6.0878 -1.6242 0 0 0 6.3705897 -0.25758094 -1.4118376 0 6.565483e+28 2.6970341e-25 0 0
0.93669999 5.8432999 -1.643 0 0 0 6.1363769 -0.27081153 -1.4118376 0 6.565483e+28 2.6970341e-25 0 0
0.89910001 5.6051002 -1.656 0 0 0 5.9080195 -0.28385037 -1.4117417 0 6.5669242e+28 2.6970341e-25 0 0
0.86269999 5.3783998 -1.6676 0 0 0 5.6913724 -0.29708093 -1.4117417 0 6.5669242e+28 2.6970341e-25 0 0
0.82609999 5.1469002 -1.6715 0 0 0 5.4688702 -0.31031153 -1.4116458 0 6.568365e+28 2.6970341e-25 0 0
0.7931 4.9380999 -1.6770999 0 0 0 5.2697892 -0.32354212 -1.4115499 0 6.5698063e+28 2.6970341e-25 0 0
0.76230001 4.7466998 -1.6831 0 0 0 5.0882745 -0.33677271 -1.4115499 0 6.5698063e+28 2.6970341e-25 0 0
0.73299998 4.5616002 -1.6855 0 0 0 4.9126148 -0.34981152 -1.4114541 0 6.5712476e+28 2.6970341e-25 0 0
0.70539999 4.3867998 -1.6908 0 0 0 4.7486658 -0.36361736 -1.4113582 0 6.5726888e+28 2.6970341e-25 0 0
0.6767 4.2062001 -1.6926 0 0 0 4.5788612 -0.37819019 -1.4112623 0 6.5741296e+28 2.6970341e-25 0 0
0.64840001 4.0302 -1.6957 0 0 0 4.4149122 -0.39372173 -1.4112623 0 6.5741296e+28 2.6970341e-25 0 0
0.6221 3.8642001 -1.7021 0 0 0 4.2626739 -0.41021204 -1.4111664 0 6.5755709e+28 2.6970341e-25 0 0
0.59560001 3.6970999 -1.7077 0 0 0 4.1104355 -0.42785281 -1.4110706 0 6.5770122e+28 2.6970341e-25 0 0
0.57050002 3.5395999 -1.717 0 0 0 3.969908 -0.44664407 -1.4109747 0 6.5784534e+28 2.6970341e-25 0 0
0.54360002 3.3705001 -1.7204 0 0 0 3.8176696 -0.46677756 -1.4108788 0 6.5798947e+28 2.6970341e-25 0 0
0.5165 3.2007999 -1.7213 0 0 0 3.6654313 -0.48806155 -1.4107829 0 6.5813355e+28 2.6970341e-25 0 0
0.4912 3.04 -1.7261 0 0 0 3.5249035 -0.51087952 -1.4105912 0 6.584218e+28 2.6970341e-25 0 0
0.4646 2.8736 -1.7253 0 0 0 3.3785205 -0.53503972 -1.4104953 0 6.5856593e+28 2.6970341e-25 0 0
0.4386 2.7114 -1.7248 0 0 0 3.2379928 -0.56073391 -1.4103994 0 6.5871001e+28 2.6970341e-25 0 0
0.4136 2.5532999 -1.7242 0 0 0 3.1033204 -0.58796203 -1.4102077 0 6.5899826e+28 2.6970341e-25 0 0
0.38800001 2.3942001 -1.721 0 0 0 2.968648 -0.61710769 -1.4101118 0 6.5914239e+28 2.6970341e-25 0 0
0.3626 2.2346001 -1.7137001 0 0 0 2.8339756 -0.64797908 -1.4099201 0 6.5943059e+28 2.6970341e-25 0 0
0.0162 0.1 -0.087899998 0 0 0 0.12881707 -0.71509069 -1.4096324 0 6.5986293e+28 2.6970341e-25 0 0
0.013 0.079800002 -0.075599998 0 0 0 0.10539579 -0.75171453 -1.4094408 0 6.6015118e+28 2.6970341e-25 0 0
0.0125 0.076899998 -0.078699999 0 0 0 0.10539579 -0.79044753 -1.4092489 0 6.6043939e+28 2.6970341e-25 0 0
0.0113 0.069700003 -0.077500001 0 0 0 0.099540465 -0.83128977 -1.4090573 0 6.6072764e+28 2.6970341e-25 0 0
0.0108 0.066399999 -0.080399998 0 0 0 0.099540465 -0.87443298 -1.4087696 0 6.6115997e+28 2.6970341e-25 0 0
0.0096000005 0.0592 -0.0788 0 0 0 0.093685143 -0.91968542 -1.4085778 0 6.6144823e+28 2.6970341e-25 0 0
0.0089999996 0.055399999 -0.081500001 0 0 0 0.093685143 -0.96723878 -1.4082903 0 6.6188056e+28 2.6970341e-25 0 0
0.0083999997 0.051399998 -0.084200002 0 0 0 0.093685143 -1.0170932 -1.4080985 0 6.6216881e+28 2.6970341e-25 0 0
0.0068000001 0.0414 -0.076499999 0 0 0 0.081974499 -1.0690567 -1.4078109 0 6.6260114e+28 2.6970341e-25 0 0
0.0060999999 0.0372 -0.078699999 0 0 0 0.081974499 -1.1235131 -1.4076191 0 6.6288935e+28 2.6970341e-25 0 0
-0.023399999 -0.1392 -0.5072 0 0 0 0.52112359 -1.2992178 8.0208025 0 6.6836574e+28 2.6970341e-25 0 0
-0.0129 -0.077 -0.2265 0 0 0 0.23421286 -1.2386255 8.0210896 0 6.6879807e+28 2.6970341e-25 0 0
-0.0155 -0.092100002 -0.2269 0 0 0 0.24006818 -1.1801425 8.0213776 0 6.6923045e+28 2.6970341e-25 0 0
-0.019400001 -0.1146 -0.24240001 0 0 0 0.26348945 -1.123577 8.0216646 0 6.6966278e+28 2.6970341e-25 0 0
-0.0065000001 -0.038600001 -0.071400002 0 0 0 0.076119177 -1.0693125 8.0218563 0 6.6995099e+28 2.6970341e-25 0 0
-0.0071 -0.042199999 -0.069300003 0 0 0 0.076119177 -1.0173489 8.0221443 0 6.7038337e+28 2.6970341e-25 0 0
-0.0098999999 -0.058600001 -0.086400002 0 0 0 0.099540465 -0.96749449 8.0224323 0 6.708157e+28 2.6970341e-25 0 0
-0.0099999998 -0.059099998 -0.0788 0 0 0 0.093685143 -0.91994107 8.022624 0 6.7110391e+28 2.6970341e-25 0 0
-0.0119 -0.07 -0.084899999 0 0 0 0.10539579 -0.87449688 8.0229111 0 6.7153629e+28 2.6970341e-25 0 0
-0.0125 -0.0735 -0.081799999 0 0 0 0.10539579 -0.83154541 8.0231028 0 6.7182449e+28 2.6970341e-25 0 0
-0.0124 -0.072700001 -0.074500002 0 0 0 0.099540465 -0.79070318 8.0232944 0 6.7211275e+28 2.6970341e-25 0 0
-0.0143 -0.083899997 -0.079599999 0 0 0 0.11125111 -0.75197017 8.0234861 0 6.7240095e+28 2.6970341e-25 0 0
-0.0163 -0.095399998 -0.084100001 0 0 0 0.12296175 -0.7153464 8.0236778 0 6.7268921e+28 2.6970341e-25 0 0
-0.3653 -2.1296999 -1.7503 0 0 0 2.7754223 -0.68083179 8.0238705 0 6.7297741e+28 2.6970341e-25 0 0
-0.3924 -2.2862999 -1.7563 0 0 0 2.9042394 -0.64804298 8.0239658 0 6.7312154e+28 2.6970341e-25 0 0
-0.41800001 -2.4326999 -1.7516 0 0 0 3.0213459 -0.61717159 8.0241575 0 6.7340979e+28 2.6970341e-25 0 0
-0.44499999 -2.5871 -1.7509 0 0 0 3.1501629 -0.58821774 8.0243492 0 6.73698e+28 2.6970341e-25 0 0
-0.47170001 -2.7406001 -1.7473 0 0 0 3.27898 -0.56098956 8.0244455 0 6.7384212e+28 2.6970341e-25 0 0
-0.50089997 -2.9082999 -1.7494 0 0 0 3.4253631 -0.53510362 8.0245409 0 6.7398625e+28 2.6970341e-25 0 0
-0.52810001 -3.0648 -1.7434 0 0 0 3.5600355 -0.51094341 8.0246372 0 6.7413033e+28 2.6970341e-25 0 0
-0.55900002 -3.2404001 -1.7467999 0 0 0 3.7181292 -0.48831722 8.0248289 0 6.7441858e+28 2.6970341e-25 0 0
-0.5923 -3.4310999 -1.7548 0 0 0 3.8937888 -0.46684149 8.0249243 0 6.7456271e+28 2.6970341e-25 0 0
-0.62269998 -3.6054001 -1.7534 0 0 0 4.0518823 -0.44689974 8.0250206 0 6.7470679e+28 2.6970341e-25 0 0
-0.65579998 -3.7946 -1.7573 0 0 0 4.2275419 -0.42810848 8.025116 0 6.7485092e+28 2.6970341e-25 0 0
-0.68879998 -3.9832001 -1.7591 0 0 0 4.4032016 -0.41046768 8.0252123 0 6.7499504e+28 2.6970341e-25 0 0
-0.72259998 -4.1767001 -1.7611001 0 0 0 4.5847168 -0.39378566 8.0253077 0 6.7513917e+28 2.6970341e-25 0 0
-0.75599998 -4.3692999 -1.7621 0 0 0 4.7662315 -0.37825409 8.0253077 0 6.7513917e+28 2.6970341e-25 0 0
-0.79049999 -4.5667 -1.7639 0 0 0 4.9536018 -0.36368129 8.025404 0 6.7528325e+28 2.6970341e-25 0 0
-0.81940001 -4.7307 -1.7529 0 0 0 5.1058402 -0.3500672 8.0255003 0 6.7542737e+28 2.6970341e-25 0 0
-0.85299999 -4.9218998 -1.7492 0 0 0 5.2873554 -0.33683661 8.0255957 0 6.755715e+28 2.6970341e-25 0 0
-0.88910002 -5.1301999 -1.7463 0 0 0 5.4864364 -0.32360604 8.0255957 0 6.755715e+28 2.6970341e-25 0 0
-0.92869997 -5.3554001 -1.7445 0 0 0 5.703083 -0.3105672 8.025692 0 6.7571563e+28 2.6970341e-25 0 0
-0.97039998 -5.5927 -1.7393 0 0 0 5.9314408 -0.29733661 8.0257874 0 6.7585971e+28 2.6970341e-25 0 0
-1.0165 -5.8586001 -1.7363 0 0 0 6.189075 -0.28410602 8.0257874 0 6.7585971e+28 2.6970341e-25 0 0
-1.0682 -6.1529002 -1.7342 0 0 0 6.4759855 -0.27087545 8.0258837 0 6.7600383e+28 2.6970341e-25 0 0
-1.1279 -6.4928999 -1.7365 0 0 0 6.8097386 -0.25764486 8.025979 0 6.7614796e+28 2.6970341e-25 0 0
-1.1906 -6.8504 -1.7355 0 0 0 7.1610579 -0.24460602 8.0260754 0 6.7629209e+28 2.6970341e-25 0 0
-1.255 -7.2205 -1.7266001 0 0 0 7.5240879 -0.23137544 8.0260754 0 6.7629209e+28 2.6970341e-25 0 0
-1.3369 -7.6872001 -1.7296 0 0 0 7.9866586 -0.21814485 8.0261707 0 6.7643621e+28 2.6970341e-25 0 0
-1.4220001 -8.1721001 -1.7239 0 0 0 8.466795 -0.20491427 8.0262671 0 6.7658029e+28 2.6970341e-25 0 0
-1.5145 -8.7034998 -1.7144001 0 0 0 8.9937735 -0.19168368 8.0262671 0 6.7658029e+28 2.6970341e-25 0 0
-1.6179 -9.2925997 -1.7013 0 0 0 9.5793056 -0.1784531 8.0263624 0 6.7672442e+28 2.6970341e-25 0 0
-1.7345001 -9.9623003 -1.6881 0 0 0 10.246813 -0.16541426 8.0263624 0 6.7672442e+28 2.6970341e-25 0 0
-1.8851 -10.8215 -1.6846 0 0 0 11.107545 -0.15218368 8.0264587 0 6.7686855e+28 2.6970341e-25 0 0
-2.0780001 -11.922 -1.6924 0 0 0 12.214201 -0.13895309 8.0265541 0 6.7701267e+28 2.6970341e-25 0 0
-2.2565 -12.9386 -1.6599 0 0 0 13.233027 -0.12572251 8.0266504 0 6.7715675e+28 2.6970341e-25 0 0
-2.5220001 -14.4608 -1.6582 0 0 0 14.76712 -0.11249193 8.0266504 0 6.7715675e+28 2.6970341e-25 0 0
-2.8073001 -16.0877 -1.6295 0 0 0 16.40661 -0.099453084 8.0267458 0 6.7730088e+28 2.6970341e-25 0 0
-7.1406002 -40.8269 -0.8398 0 0 0 41.449821 -0.020261329 8.0271301 0 6.7787734e+28 2.6970341e-25 0 0
-7.1497998 -40.856701 -0.29159999 0 0 0 41.47324 -0.0070307455 8.0272255 0 6.7802147e+28 2.6970341e-25 0 0
-7.2800002 -41.577099 0.26159999 0 0 0 42.205158 0.0061998391 8.0273218 0 6.7816559e+28 2.6970341e-25 0 0
2.6582999 14.8469 4.1771002 0 0 0 15.645419 0.27017236 -1.3936216 0 6.8393018e+28 2.6970341e-25 0 0
2.6851001 14.9882 4.0039001 0 0 0 15.739104 0.25713354 -1.3935257 0 6.8407431e+28 2.6970341e-25 0 0
2.7413001 15.3019 3.8685999 0 0 0 16.014303 0.24390295 -1.3935257 0 6.8407431e+28 2.6970341e-25 0 0
2.6379001 14.7166 3.5113001 0 0 0 15.352653 0.23067236 -1.3934298 0 6.8421839e+28 2.6970341e-25 0 0
2.6473 14.7608 3.3132 0 0 0 15.352653 0.21744178 -1.3933339 0 6.8436252e+28 2.6970341e-25 0 0
2.6652999 14.8532 3.1252 0 0 0 15.405351 0.20421119 -1.3932381 0 6.8450664e+28 2.6970341e-25 0 0
2.6580999 14.8128 2.9126 0 0 0 15.323377 0.19117236 -1.3932381 0 6.8450664e+28 2.6970341e-25 0 0
2.8074 15.6446 3.0761001 0 0 0 16.184109 0.19117236 -1.3932381 0 6.8450664e+28 2.6970341e-25 0 0
2.6722 14.8833 2.7193999 0 0 0 15.358508 0.17794177 -1.3931422 0 6.8465077e+28 2.6970341e-25 0 0
2.8269999 15.7454 2.8770001 0 0 0 16.248516 0.17794177 -1.3931422 0 6.8465077e+28 2.6970341e-25 0 0
2.5346999 14.1098 2.3828001 0 0 0 14.527053 0.16471119 -1.3930463 0 6.8479485e+28 2.6970341e-25 0 0
2.5329001 14.0997 2.1867001 0 0 0 14.486065 0.1514806 -1.3930463 0 6.8479485e+28 2.6970341e-25 0 0
2.5534999 14.2067 2.0083001 0 0 0 14.56804 0.13825002 -1.3929504 0 6.8493898e+28 2.6970341e-25 0 0
2.5809 14.351 1.8353 0 0 0 14.691002 0.12521118 -1.3928546 0 6.850831e+28 2.6970341e-25 0 0
2.5488999 14.1733 1.6193 0 0 0 14.486065 0.11198059 -1.3928546 0 6.850831e+28 2.6970341e-25 0 0
2.5941 14.4165 1.4512 0 0 0 14.714423 0.09875001 -1.3927587 0 6.8522723e+28 2.6970341e-25 0 0
2.4756999 13.7506 1.1977 0 0 0 14.017639 0.085519426 -1.3926628 0 6.8537136e+28 2.6970341e-25 0 0
2.4754 13.7418 1.0111001 0 0 0 13.994218 0.072288841 -1.3925669 0 6.8551544e+28 2.6970341e-25 0 0
2.405 13.3511 0.8021 0 0 0 13.584346 0.05905826 -1.3925669 0 6.8551544e+28 2.6970341e-25 0 0
1.8633 10.3379 0.48370001 0 0 0 10.510302 0.046019424 -1.3924711 0 6.8565956e+28 2.6970341e-25 0 0
2.3996999 13.314 0.62300003 0 0 0 13.537503 0.046019424 -1.3924711 0 6.8565956e+28 2.6970341e-25 0 0
2.3999 13.3152 0.44369999 0 0 0 13.531648 0.032788839 -1.3924711 0 6.8565956e+28 2.6970341e-25 0 0
2.5783999 14.3058 0.47679999 0 0 0 14.538763 0.032788839 -1.3924711 0 6.8565956e+28 2.6970341e-25 0 0
2.4477 13.573 0.26969999 0 0 0 13.789282 0.019558255 -1.3923752 0 6.8580369e+28 2.6970341e-25 0 0
2.5682001 14.2413 0.28299999 0 0 0 14.468499 0.019558255 -1.3923752 0 6.8580369e+28 2.6970341e-25 0 0
2.5378001 14.0649 0.090400003 0 0 0 14.286984 0.0063276705 -1.3922793 0 6.8594782e+28 2.6970341e-25 0 0
2.7405 15.1885 0.097599998 0 0 0 15.428772 0.0063276705 -1.3922793 0 6.8594782e+28 2.6970341e-25 0 0
2.4993 13.8517 -0.097099997 0 0 0 14.070337 -0.0069029136 -1.3922793 0 6.8594782e+28 2.6970341e-25 0 0
2.4742 13.705 -0.27770001 0 0 0 13.923954 -0.019941751 -1.3921834 0 6.860919e+28 2.6970341e-25 0 0
2.4122 13.3544 -0.45030001 0 0 0 13.572635 -0.033172335 -1.3920876 0 6.8623602e+28 2.6970341e-25 0 0
2.3332 12.9097 -0.60909998 0 0 0 13.12763 -0.04640292 -1.3919917 0 6.8638015e+28 2.6970341e-25 0 0
2.8627999 15.8398 -0.96100003 0 0 0 16.119699 -0.059633505 -1.3919917 0 6.8638015e+28 2.6970341e-25 0 0
1.8704 10.3433 -0.76719999 0 0 0 10.533723 -0.072864085 -1.3918958 0 6.8652427e+28 2.6970341e-25 0 0
2.4210999 13.389 -0.99309999 0 0 0 13.637044 -0.072864085 -1.3918958 0 6.8652427e+28 2.6970341e-25 0 0
2.763 15.2797 -1.1334 0 0 0 15.563444 -0.072864085 -1.3918958 0 6.8652427e+28 2.6970341e-25 0 0
2.4219999 13.3864 -1.1714 0 0 0 13.648754 -0.085902922 -1.3917999 0 6.8666835e+28 2.6970341e-25 0 0
2.5207 13.9317 -1.2192 0 0 0 14.205009 -0.085902922 -1.3917999 0 6.8666835e+28 2.6970341e-25 0 0
2.7897 15.4185 -1.3493 0 0 0 15.721539 -0.085902922 -1.3917999 0 6.8666835e+28 2.6970341e-25 0 0
1.8713 10.3427 -1.0453 0 0 0 10.557144 -0.099133506 -1.3917999 0 6.8666835e+28 2.6970341e-25 0 0
1.877 10.3629 -1.3297 0 0 0 10.609842 -0.12559468 -1.3916082 0 6.8695661e+28 2.6970341e-25 0 0
1.8778 10.3676 -1.4721 0 0 0 10.633264 -0.13882527 -1.3916082 0 6.8695661e+28 2.6970341e-25 0 0
3.6896999 20.370399 -2.8924999 0 0 0 20.897642 -0.13882527 -1.3916082 0 6.8695661e+28 2.6970341e-25 0 0
1.8803999 10.3758 -1.6158 0 0 0 10.66254 -0.15205584 -1.3915123 0 6.8710073e+28 2.6970341e-25 0 0
2.1724 11.9875 -1.8668 0 0 0 12.319596 -0.15205584 -1.3915123 0 6.8710073e+28 2.6970341e-25 0 0
1.9444 10.7234 -1.8157001 0 0 0 11.043137 -0.16509469 -1.3914164 0 6.8724481e+28 2.6970341e-25 0 0
1.7682 9.7461004 -1.7853 0 0 0 10.059443 -0.17832527 -1.3913206 0 6.8738894e+28 2.6970341e-25 0 0
1.6489 9.0885 -1.7913001 0 0 0 9.4036465 -0.19155586 -1.3913206 0 6.8738894e+28 2.6970341e-25 0 0
1.459 8.0375996 -1.6966 0 0 0 8.3379774 -0.20478643 -1.3912247 0 6.8753307e+28 2.6970341e-25 0 0
1.3361 7.3565998 -1.6564 0 0 0 7.652905 -0.21801703 -1.3911288 0 6.8767719e+28 2.6970341e-25 0 0
1.1121 6.1234002 -1.4641 0 0 0 6.3881555 -0.23105586 -1.3911288 0 6.8767719e+28 2.6970341e-25 0 0
1.1 6.0534 -1.5336 0 0 0 6.3354578 -0.24428645 -1.3910329 0 6.8782127e+28 2.6970341e-25 0 0
1.0989 6.0439 -1.6178 0 0 0 6.3471684 -0.25751701 -1.3909371 0 6.879654e+28 2.6970341e-25 0 0
1.0627 5.8446999 -1.6488 0 0 0 6.1597981 -0.2707476 -1.3909371 0 6.879654e+28 2.6970341e-25 0 0
1.0190001 5.6013999 -1.6617 0 0 0 5.9255853 -0.28397819 -1.3908412 0 6.8810953e+28 2.6970341e-25 0 0
0.97750002 5.3702002 -1.6706001 0 0 0 5.703083 -0.29701704 -1.3907453 0 6.8825365e+28 2.6970341e-25 0 0
0.93849999 5.1560001 -1.6801 0 0 0 5.498147 -0.3102476 -1.3907453 0 6.8825365e+28 2.6970341e-25 0 0
0.90009999 4.9424 -1.6842 0 0 0 5.2932105 -0.32347819 -1.3906494 0 6.8839773e+28 2.6970341e-25 0 0
0.86479998 4.7459998 -1.6885999 0 0 0 5.1058402 -0.33670878 -1.3905536 0 6.8854186e+28 2.6970341e-25 0 0
0.8301 4.5559001 -1.6901 0 0 0 4.9243255 -0.34993938 -1.3905536 0 6.8854186e+28 2.6970341e-25 0 0
0.79890001 4.382 -1.6946 0 0 0 4.7603765 -0.36355343 -1.3904577 0 6.8868599e+28 2.6970341e-25 0 0
0.7665 4.2019 -1.6967 0 0 0 4.5905719 -0.37812626 -1.3903618 0 6.8883011e+28 2.6970341e-25 0 0
0.73290002 4.0158 -1.6954 0 0 0 4.4149122 -0.39365783 -1.3902659 0 6.8897419e+28 2.6970341e-25 0 0
0.70270002 3.8504 -1.7018 0 0 0 4.2626739 -0.41014811 -1.3902659 0 6.8897419e+28 2.6970341e-25 0 0
0.67180002 3.6787 -1.705 0 0 0 4.1045804 -0.42778888 -1.3901701 0 6.8911832e+28 2.6970341e-25 0 0
0.64050001 3.5058999 -1.7074 0 0 0 3.9464867 -0.44677189 -1.3900743 0 6.8926244e+28 2.6970341e-25 0 0
0.61210001 3.3482001 -1.7149 0 0 0 3.805959 -0.46671367 -1.3899783 0 6.8940657e+28 2.6970341e-25 0 0
0.58359998 3.1893001 -1.721 0 0 0 3.6654313 -0.48799765 -1.3897866 0 6.8969478e+28 2.6970341e-25 0 0
0.55369997 3.0242 -1.723 0 0 0 3.5190482 -0.51081562 -1.3896908 0 6.898389e+28 2.6970341e-25 0 0
0.52460003 2.8634 -1.7251 0 0 0 3.3785205 -0.53497583 -1.3895948 0 6.8998303e+28 2.6970341e-25 0 0
0.49520001 2.7017 -1.7246 0 0 0 3.2379928 -0.56066996 -1.3894989 0 6.9012716e+28 2.6970341e-25 0 0
0.020099999 0.1098 -0.0744 0 0 0 0.12881707 -0.58808988 -1.3893073 0 6.9041536e+28 2.6970341e-25 0 0
0.4659 2.5390999 -1.7213 0 0 0 3.097465 -0.58808988 -1.3893073 0 6.9041536e+28 2.6970341e-25 0 0
0.0189 0.1029 -0.074199997 0 0 0 0.12296175 -0.61704379 -1.3892113 0 6.9055949e+28 2.6970341e-25 0 0
0.0176 0.096000001 -0.073899999 0 0 0 0.11710643 -0.64791512 -1.3890196 0 6.908477e+28 2.6970341e-25 0 0
0.017200001 0.093599997 -0.077 0 0 0 0.11710643 -0.68051225 -1.3888278 0 6.9113595e+28 2.6970341e-25 0 0
0.0167 0.090899996 -0.080300003 0 0 0 0.11710643 -0.71521854 -1.388732 0 6.9128008e+28 2.6970341e-25 0 0
0.0146 0.079499997 -0.075599998 0 0 0 0.10539579 -0.75184232 -1.3885403 0 6.9156828e+28 2.6970341e-25 0 0
0.0148 0.080600001 -0.082900003 0 0 0 0.11125111 -0.79057533 -1.3883485 0 6.9185654e+28 2.6970341e-25 0 0
0.0135 0.073399998 -0.081799999 0 0 0 0.10539579 -0.83141756 -1.3881568 0 6.9214474e+28 2.6970341e-25 0 0
0.0129 0.069799997 -0.084899999 0 0 0 0.10539579 -0.87436903 -1.3878691 0 6.9257707e+28 2.6970341e-25 0 0
0.0109 0.059 -0.0788 0 0 0 0.093685143 -0.91962147 -1.3876773 0 6.9286533e+28 2.6970341e-25 0 0
0.0089999996 0.048700001 -0.071900003 0 0 0 0.081974499 -0.96717489 -1.3874856 0 6.9315353e+28 2.6970341e-25 0 0
0.0088999998 0.048099998 -0.0792 0 0 0 0.087829821 -1.0170293 -1.387198 0 6.9358591e+28 2.6970341e-25 0 0
0.0076000001 0.041200001 -0.0766 0 0 0 0.081974499 -1.0691847 -1.3869104 0 6.9401825e+28 2.6970341e-25 0 0
0.0068999999 0.037099998 -0.078699999 0 0 0 0.081974499 -1.1234492 -1.3867186 0 6.9430645e+28 2.6970341e-25 0 0
-0.036200002 -0.1912 -0.91589999 0 0 0 0.93099612 -1.361408 8.0413189 0 6.9920638e+28 2.6970341e-25 0 0
-0.0263 -0.1388 -0.50709999 0 0 0 0.52112359 -1.29909 8.0417023 0 6.9978284e+28 2.6970341e-25 0 0
-0.0138 -0.072899997 -0.2154 0 0 0 0.22250222 -1.2386895 8.0419903 0 7.0021522e+28 2.6970341e-25 0 0
-0.060600001 -0.3186 -0.94050002 0 0 0 0.98954934 -1.2386895 8.0419903 0 7.0021522e+28 2.6970341e-25 0 0
-0.017899999 -0.093900003 -0.2323 0 0 0 0.2459235 -1.1802064 8.0422773 0 7.0064755e+28 2.6970341e-25 0 0
-0.0217 -0.1142 -0.24240001 0 0 0 0.26348945 -1.1236409 8.0425653 0 7.0107988e+28 2.6970341e-25 0 0
-0.0083999997 -0.044 -0.081699997 0 0 0 0.087829821 -1.0693763 8.0428534 0 7.0151222e+28 2.6970341e-25 0 0
-0.0097000003 -0.051100001 -0.084200002 0 0 0 0.093685143 -1.017221 8.043045 0 7.0180047e+28 2.6970341e-25 0 0
-0.0105 -0.055199999 -0.081500001 0 0 0 0.093685143 -0.96736664 8.0433321 0 7.022328e+28 2.6970341e-25 0 0
-0.0113 -0.058899999 -0.0788 0 0 0 0.093685143 -0.91981322 8.0436201 0 7.0266513e+28 2.6970341e-25 0 0
-0.0126 -0.066 -0.080499999 0 0 0 0.099540465 -0.87456077 8.0438118 0 7.0295339e+28 2.6970341e-25 0 0
-0.0133 -0.069399998 -0.077500001 0 0 0 0.099540465 -0.83160931 8.0440035 0 7.0324159e+28 2.6970341e-25 0 0
-0.0162 -0.0845 -0.086999997 0 0 0 0.11710643 -0.79076707 8.0441952 0 7.0352985e+28 2.6970341e-25 0 0
-0.016100001 -0.0836 -0.079599999 0 0 0 0.11125111 -0.75203407 8.0443869 0 7.038181e+28 2.6970341e-25 0 0
-0.018300001 -0.095100001 -0.084100001 0 0 0 0.12296175 -0.71541029 8.0445786 0 7.0410631e+28 2.6970341e-25 0 0
-0.40889999 -2.1173 -1.7463 0 0 0 2.769567 -0.680704 8.0447702 0 7.0439456e+28 2.6970341e-25 0 0
-0.43849999 -2.2681999 -1.7494 0 0 0 2.8925288 -0.64810687 8.0449619 0 7.0468277e+28 2.6970341e-25 0 0
-0.46779999 -2.4186001 -1.7484 0 0 0 3.0154905 -0.61723554 8.0450583 0 7.0482689e+28 2.6970341e-25 0 0
-0.4962 -2.5627999 -1.7413 0 0 0 3.132597 -0.58828163 8.0452499 0 7.051151e+28 2.6970341e-25 0 0
-0.528 -2.7255001 -1.7438 0 0 0 3.2731247 -0.56086171 8.0453453 0 7.0525923e+28 2.6970341e-25 0 0
-0.56080002 -2.8921001 -1.7466 0 0 0 3.4195077 -0.53516757 8.0455379 0 7.0554748e+28 2.6970341e-25 0 0
-0.59530002 -3.0680001 -1.7522 0 0 0 3.5776014 -0.51100737 8.0456333 0 7.0569156e+28 2.6970341e-25 0 0
-0.6286 -3.2384 -1.7519 0 0 0 3.7298398 -0.4881894 8.0457296 0 7.0583568e+28 2.6970341e-25 0 0
-0.66280001 -3.4128001 -1.7524 0 0 0 3.8879335 -0.46690542 8.045825 0 7.0597981e+28 2.6970341e-25 0 0
-0.6979 -3.5915 -1.7536 0 0 0 4.0518823 -0.44696364 8.0459213 0 7.0612394e+28 2.6970341e-25 0 0
-0.73400003 -3.7751 -1.7543 0 0 0 4.2216868 -0.42798063 8.0460167 0 7.0626802e+28 2.6970341e-25 0 0
-0.76880002 -3.9524 -1.7516 0 0 0 4.3856359 -0.41033986 8.046113 0 7.0641214e+28 2.6970341e-25 0 0
-0.80769998 -4.1499 -1.7569 0 0 0 4.5730062 -0.39384958 8.0462084 0 7.0655627e+28 2.6970341e-25 0 0
-0.84539998 -4.3417001 -1.7581 0 0 0 4.7545209 -0.37831801 8.0463047 0 7.067004e+28 2.6970341e-25 0 0
-0.88099998 -4.5221 -1.7538 0 0 0 4.9243255 -0.36374518 8.0464001 0 7.0684448e+28 2.6970341e-25 0 0
-0.9181 -4.7125001 -1.7532001 0 0 0 5.1058402 -0.35013112 8.0464001 0 7.0684448e+28 2.6970341e-25 0 0
